144.374473723	38.3756362307	0.74694735
144.458055762	38.374382285	0.3195018
144.541275928	38.3736359781	0.1134329
144.624461459	38.3750426144	0.029224755
144.708108033	38.375610684	0.00299562325
144.791803779	38.3757211172	-0.0014519282
144.875258341	38.3752777687	-0.0011291198
144.958096913	38.3748156513	-0.0004352915
145.041522108	38.373835093	-0.00012249222
145.123833316	38.374811393	-2.8137882e-05
145.175527645	38.3904657507	-1.3601341e-05
140.476436062	38.2862866356	-5.6034101e-15
140.541756806	38.2925549813	-7.6321084e-14
140.624634711	38.2912393728	-1.897861e-12
140.707530781	38.2924321925	-4.085686e-11
140.792386039	38.2903851556	-8.3676013e-10
140.874795043	38.2920883967	-1.239856e-08
140.957703636	38.2904573712	-1.5177673e-07
141.041962679	38.291523335	-1.6491398e-06
141.124864864	38.2916680139	-1.4202757e-05
141.208394562	38.2921978951	-0.00010394899
141.291991645	38.2926868452	-0.00065082032
141.374994348	38.2906489284	-0.0033135454
141.458577618	38.2919931447	-0.014492362
141.542135902	38.293300786	-0.053123105
141.625145434	38.2910135109	-0.1577923
141.707667429	38.292207137	-0.39532025
141.792172268	38.2906065552	-0.8359051
141.875186458	38.2921097403	-1.419143
141.959057524	38.2925339415	-1.98646
142.041258828	38.2908546488	-2.228992
142.126103211	38.2921197249	-1.975638
142.209226262	38.2927246807	-1.26479
142.291418605	38.2905303108	-0.54016125
142.375513795	38.292380228	-0.1268107
142.458993701	38.2923861215	-0.024267716
142.541855073	38.2902405583	0.068290308
142.623497882	38.2927580791	0.4256234
142.707682	38.2925590002	1.1304935
142.790830368	38.2910459014	1.936536
142.875116357	38.2926290716	2.593078
142.958314756	38.2932774244	3.121608
143.041694719	38.2916006744	3.7061925
143.125044765	38.2901045048	4.3528
143.209465597	38.2914798505	4.858539
143.293949192	38.2928270241	5.051552
143.377214497	38.290986557	4.945956
143.460490486	38.2912095465	4.915697
143.541199944	38.2934530987	5.268928
143.625762004	38.2924891779	6.0206195
143.707616383	38.2914327028	6.854128
143.790893666	38.2914188517	7.2564045
143.874150123	38.2934888647	6.990043
143.957433496	38.29331177	6.160632
144.040725918	38.2911074101	4.937531
144.124027161	38.2908469263	3.595221
144.208630909	38.2915274561	2.377762
144.293211186	38.2921049893	1.42759
144.376670943	38.291725161	0.7632706
144.45856185	38.2922825883	0.36959445
144.543117948	38.2910049934	0.1531421
144.626435326	38.2903429421	0.056143411
144.709510307	38.2916800901	0.016773861
144.792550267	38.2929261931	0.0039016525
144.87584649	38.2920201176	0.00077410007
144.958311554	38.2924385476	8.93362955e-05
145.042458078	38.2910391661	5.6577687e-06
145.119476479	38.295205774	-2.16355525e-06
140.464132484	38.204687976	-5.6493106e-15
140.54211224	38.2090737568	-1.33040795e-13
140.624874076	38.2080817047	-3.33217515e-12
140.70885963	38.2089254291	-7.151452e-11
140.791662339	38.2078155087	-1.20609945e-09
140.875698761	38.2091077404	-1.8685682e-08
140.958541493	38.2073288081	-2.21237e-07
141.04150304	38.2084867511	-2.28211015e-06
141.124334332	38.2080968051	-1.90554565e-05
141.207804692	38.2091070737	-0.0001400171
141.292528462	38.2090940378	-0.000838774925
141.375419206	38.2075618459	-0.0041150842
141.458325992	38.2093579282	-0.0169899865
141.541248596	38.2076987069	-0.05867639
141.624707164	38.2083621325	-0.1704563
141.708138617	38.2081656452	-0.41720245
141.791066521	38.2073255394	-0.83021325
141.874466784	38.209442118	-1.374687
141.956966795	38.2078459169	-1.8359825
142.042094311	38.2081708599	-1.979033
142.125110992	38.2088091432	-1.638466
142.208516932	38.2090125105	-0.94112285
142.291540919	38.2078302238	-0.2675034
142.374912624	38.2096757617	0.1221406
142.457942951	38.2065845767	0.3144414
142.541569802	38.2075224765	0.591054
142.625634917	38.2092123205	1.0993745
142.707362189	38.2077493907	1.8241235
142.790652921	38.2074524224	2.480829
142.874832067	38.2090091172	2.9518685
142.959074467	38.2087212519	3.399625
143.042201808	38.2068763125	4.017416
143.125340674	38.2073542534	4.722383
143.208490838	38.209694855	5.272841
143.291757586	38.2101509515	5.479046
143.375077584	38.2070830443	5.4308635
143.458198079	38.2083947627	5.4824425
143.541371348	38.2085900293	5.926948
143.624469872	38.2075496534	6.759383
143.707621647	38.2064895938	7.549965
143.792171819	38.2075514412	7.81391
143.876701733	38.2085806265	7.388526
143.959870077	38.2084291073	6.339925
144.043047382	38.208203325	4.925206
144.12623342	38.2080625722	3.506565
144.209427961	38.2077253182	2.281547
144.29233906	38.2093157046	1.339555
144.375508235	38.2088013262	0.7225505
144.458872757	38.2075364846	0.3503133
144.541869721	38.2082124858	0.1533879
144.625061575	38.2075491462	0.058465276
144.706368299	38.2086888927	0.01870719
144.789647825	38.2082777734	0.005192861
144.87380643	38.2083116204	0.00120878085
144.958210665	38.2078374135	0.00022792248
145.041122747	38.2082423448	3.6560097e-05
145.105539278	38.2147184878	7.68350405e-06
140.410133358	38.1068102585	-1.07929635e-15
140.458212171	38.124959148	-7.7475893e-15
140.540880455	38.1237077536	-2.0988125e-13
140.625529313	38.125527045	-5.36343475e-12
140.708218648	38.1244668068	-1.0419489e-10
140.790925713	38.1242903429	-1.7336624e-09
140.874865361	38.1265254473	-2.47299745e-08
140.957612228	38.1237791986	-2.8141902e-07
141.042355864	38.1254421426	-3.0025251e-06
141.125667292	38.1240164295	-2.471259e-05
141.208429313	38.1260033597	-0.000167668645
141.291207721	38.124522318	-0.000949715935
141.374669136	38.1244768658	-0.0045390902
141.45931327	38.1257355988	-0.0186649475
141.541431634	38.124065988	-0.061964601
141.625289247	38.1248964656	-0.1723486
141.708860272	38.125507883	-0.40426025
141.79090651	38.124037849	-0.7814163
141.87537855	38.1267725655	-1.236011
141.958274772	38.1241607108	-1.591822
142.041185387	38.1248321008	-1.646111
142.124896458	38.1261200829	-1.310387
142.207794341	38.123259432	-0.6884843
142.292602225	38.1243834591	-0.1038418
142.375266465	38.1262019139	0.3140048
142.457189247	38.1238707273	0.6423344
142.540099627	38.1248027477	1.095109
142.623022771	38.1256614055	1.753936
142.708359595	38.1250208968	2.4301775
142.793771098	38.1243576077	2.905832
142.876998914	38.1252224932	3.1942665
142.959825344	38.1256899587	3.55891
143.042870102	38.1241291803	4.178033
143.125926317	38.1246025675	4.956285
143.208011144	38.125971906	5.566559
143.28976602	38.1251745065	5.792766
143.372762734	38.1233150072	5.814285
143.458385796	38.1255805325	5.954941
143.542870386	38.1247065732	6.4923865
143.627293518	38.1258635433	7.311963
143.710389941	38.1237146562	8.026088
143.793456776	38.1236978505	8.146368
143.876446535	38.1257337098	7.58646
143.95949046	38.1255424323	6.365324
144.042543259	38.1233363515	4.860484
144.125604706	38.125116623	3.343913
144.2075112	38.124838862	2.0871515
144.289499004	38.1265253517	1.192963
144.373748425	38.1250227528	0.62479285
144.45793241	38.123764494	0.2975712
144.54124288	38.1252574558	0.12681605
144.624602246	38.12475436	0.047469821
144.708952685	38.1249540889	0.0145017365
144.793278242	38.1250510993	0.0038590825
144.875255725	38.1255143403	0.00092168714
144.959562489	38.125444636	0.0001845142
145.041584255	38.1258111132	3.1425219e-05
145.091626345	38.1385727102	1.00826196e-05
140.401080544	38.032390776	-1.4399488e-15
140.458236881	38.0430518344	-1.547957e-14
140.542393336	38.0405423486	-3.87162305e-13
140.624969666	38.0420238624	-8.42132915e-12
140.709235223	38.0409515321	-1.6116473e-10
140.791877019	38.0413280709	-2.7021414e-09
140.87453626	38.0435311527	-3.4276663e-08
140.958568026	38.0407611548	-3.7607711e-07
141.041876894	38.0423235734	-3.61567955e-06
141.124526808	38.0404402123	-2.78217495e-05
141.209046948	38.0429018464	-0.00019060312
141.292354767	38.0404499165	-0.0010383572
141.375063518	38.041320672	-0.0047441777
141.458342771	38.0425459589	-0.018282784
141.542503354	38.0405738341	-0.059628159
141.624823307	38.0422449881	-0.1580344
141.707533518	38.0418527367	-0.3621901
141.791853219	38.041369141	-0.6730234
141.874643542	38.0420960101	-1.038629
141.959159127	38.0424876962	-1.315622
142.04196297	38.0404502968	-1.324337
142.126070041	38.0427189956	-1.0559025
142.208536918	38.040560256	-0.5697579
142.291407671	38.0416778858	-0.060797494
142.373974104	38.042465912	0.4220983
142.458421389	38.0406647001	0.9357609
142.541250121	38.0416274323	1.602486
142.626196912	38.0425170399	2.319274
142.709347367	38.0422908187	2.8879235
142.790915099	38.0407559469	3.167995
142.875152486	38.0424829638	3.3118935
142.958440448	38.0418925147	3.633557
143.042675453	38.0412496065	4.2995045
143.124233822	38.0417368276	5.1085015
143.207147292	38.0421506054	5.7348155
143.290172906	38.0402747032	6.026531
143.373087396	38.040551028	6.114291
143.457321004	38.041784456	6.318884
143.541694097	38.0429898942	6.882426
143.627370276	38.0430910153	7.667721
143.710374255	38.0409384817	8.249959
143.793317292	38.0409201472	8.283463
143.873658518	38.0429520902	7.573242
143.956692494	38.0427582094	6.24826
144.039735346	38.0405518043	4.633999
144.122786845	38.0402752572	3.092054
144.208166987	38.0399248147	1.851026
144.29272811	38.0427336047	0.97894735
144.37701137	38.0432162007	0.4658361
144.46003213	38.0426244306	0.2112196
144.543060343	38.040370627	0.086213157
144.626095782	38.0415978833	0.03100336
144.709138219	38.0412186449	0.0097435322
144.791641217	38.0422532718	0.0026224863
144.875243172	38.0413367092	0.00060327759
144.958305231	38.042646047	0.00011810796
145.035857533	38.0464688257	2.2203404e-05
140.388479093	37.9535921261	-2.4105965e-15
140.458254196	37.9592587086	-3.9526389e-14
140.540782582	37.9573795693	-8.9808521e-13
140.625595257	37.9594636525	-1.73471575e-11
140.708099632	37.9568500418	-2.7710545e-10
140.792325584	37.9587476324	-5.2896265e-09
140.87558866	37.9588963748	-5.95214775e-08
140.958154917	37.9585934998	-5.66040145e-07
141.041391978	37.9592072937	-4.733166e-06
141.125235705	37.9573619695	-3.4346136e-05
141.20841378	37.9597950858	-0.000219608985
141.291658076	37.9573553115	-0.0011161262
141.374867996	37.9586869483	-0.00481434795
141.458053491	37.9590383159	-0.017565228
141.541405622	37.9573593241	-0.054901859
141.625095881	37.9590000377	-0.1413189
141.707740633	37.9581941286	-0.30761595
141.791199577	37.957957172	-0.5596461
141.875621353	37.9587685185	-0.8510835
141.958319964	37.9577894079	-1.0633635
142.041908151	37.9580827763	-1.095339
142.124660178	37.9593119329	-0.912213
142.208892744	37.9572763989	-0.5479017
142.291591042	37.95842405	-0.084202498
142.37430262	37.9594989238	0.4724799
142.456722103	37.9571622469	1.1273315
142.540793151	37.958096447	1.943918
142.624886359	37.9599985128	2.69648
142.707922873	37.9564291357	3.172226
142.792917455	37.9571494795	3.311844
142.873907738	37.9595824731	3.372216
142.957831628	37.9591474759	3.690636
143.03945424	37.9583709045	4.367352
143.12493918	37.9569672818	5.247615
143.210216711	37.9592996483	5.940312
143.293089492	37.9596541434	6.233418
143.375972891	37.9577857131	6.37165
143.458866685	37.9579847454	6.578858
143.541882197	37.9591649509	7.078016
143.624750735	37.9581456438	7.721058
143.707608184	37.958161078	8.181274
143.790517156	37.9581221127	8.1186905
143.873348881	37.9591078345	7.38833
143.956304543	37.9599728402	5.983834
144.040538889	37.9577009976	4.318323
144.124965757	37.9595400645	2.651621
144.210479071	37.9571346671	1.495086
144.293101952	37.9587050486	0.7665554
144.375991248	37.958450194	0.3602561
144.458888145	37.9598288973	0.1533774
144.541792418	37.9575749129	0.059508529
144.624936166	37.9567162706	0.020191542
144.708128127	37.9584209019	0.0059932191
144.791094482	37.9594545269	0.0015509091
144.874067329	37.9585374763	0.00034421345
144.956731462	37.9589488914	6.6538265e-05
145.020910398	37.9639336718	1.4903505e-05
140.378258483	37.8723334595	-5.0878982e-15
140.457470479	37.8760886932	-1.20566305e-13
140.541073324	37.8735572747	-2.60940175e-12
140.624559425	37.8765465946	-4.8378881e-11
140.707890663	37.873908996	-7.4508144e-10
140.79176348	37.876164838	-1.1042857e-08
140.874193189	37.8734342713	-1.1670455e-07
140.959076185	37.8755650639	-1.0663194e-06
141.042197925	37.8756382823	-8.1840144e-06
141.124667907	37.8742501206	-5.18834185e-05
141.207762717	37.8766807081	-0.00028322914
141.290894751	37.8742205244	-0.00131619695
141.375229053	37.8755186958	-0.00586665
141.459152858	37.874426021	-0.019105567
141.541742169	37.8741377933	-0.053436298
141.624611036	37.876342115	-0.13255385
141.708914018	37.873758843	-0.2747339
141.792269992	37.8746553397	-0.48163225
141.876136193	37.8760900752	-0.71749035
141.958323708	37.8740958647	-0.9069796
142.041781555	37.8753908117	-0.969303
142.124786088	37.8749951298	-0.88354655
142.207400455	37.8738458906	-0.60745455
142.29132569	37.8759898713	-0.16461865
142.375596451	37.8752346097	0.4768982
142.459245108	37.8734143268	1.294971
142.54295689	37.8745602488	2.196048
142.625676279	37.8753933529	2.936605
142.70840803	37.873694906	3.305077
142.791594115	37.8744100551	3.372729
142.875841058	37.8759467531	3.4225935
142.9572155	37.8742908172	3.768405
143.04009252	37.8737596274	4.497051
143.124009537	37.8751644656	5.3860535
143.20822392	37.876541556	6.108241
143.293580404	37.8758212453	6.4375895
143.376284909	37.8748939646	6.558456
143.457842533	37.8751701508	6.6781645
143.539283264	37.8753106017	7.010011
143.624781491	37.8731971263	7.529215
143.707582126	37.8732080442	7.886537
143.791751819	37.8742481689	7.7412585
143.875946868	37.8752252295	6.8844865
143.958696701	37.8750923458	5.39405
144.041678915	37.8748478749	3.749921
144.126908857	37.8746980986	2.294662
144.209700223	37.8743434394	1.243243
144.29026935	37.875911305	0.6018792
144.373148789	37.8753815584	0.2622544
144.457078626	37.8741120975	0.10393775
144.541155866	37.8757428329	0.0370664655
144.624238525	37.874101216	0.011718047
144.708302102	37.8742870822	0.00326185735
144.791170227	37.8757307285	0.00081057675
144.875495241	37.8748272826	0.000163678715
144.960341385	37.8752509269	2.8642575e-05
145.008574878	37.8921235532	1.0122776e-05
140.325365449	37.7784783802	-1.8423972e-15
140.375143788	37.7916648522	-1.5899838e-14
140.459041298	37.7929213148	-4.0098418e-13
140.541766768	37.7910015774	-8.1386612e-12
140.626055643	37.7928019384	-1.4826051e-10
140.708401255	37.7913334628	-2.1088677e-09
140.790764243	37.7924655117	-2.6096547e-08
140.875570004	37.7897544631	-2.8100422e-07
140.958643525	37.792437693	-2.45453865e-06
141.041047326	37.7910995394	-1.7253669e-05
141.124094451	37.7911404915	-0.00010722522
141.208976046	37.7931013497	-0.00056370802
141.29258847	37.7910782829	-0.0024030928
141.375007013	37.7919872104	-0.0085339611
141.457441142	37.7898085767	-0.025756538
141.541870002	37.7920571552	-0.067153443
141.62486928	37.7922935673	-0.1491001
141.707841868	37.790482676	-0.2827329
141.791593064	37.791982257	-0.47784655
141.874925453	37.7927520879	-0.6768578
141.960022501	37.7907378004	-0.8570956
142.04163295	37.792062013	-0.9448274
142.125028832	37.7922976049	-0.9013061
142.207557806	37.7911426645	-0.6779245
142.29139626	37.7922550419	-0.2402133
142.374277179	37.7920173408	0.4465689
142.458842706	37.7909331818	1.346138
142.542018422	37.7918333047	2.27018
142.624865046	37.7912163546	2.9760175
142.707683592	37.7909591222	3.322326
142.790037594	37.7914961526	3.3916725
142.873972673	37.7921516573	3.4909105
142.959264907	37.7915422276	3.9397795
143.043090754	37.7910061305	4.694077
143.125768829	37.7914528931	5.569766
143.208573845	37.7928044554	6.267921
143.291348967	37.789843593	6.581528
143.374167561	37.79009948	6.609942
143.456806773	37.7923560688	6.60416
143.539455969	37.7925112689	6.762335
143.624851441	37.7915067325	7.1220755
143.710302759	37.7904293404	7.400705
143.793000179	37.7903932128	7.195923
143.875608262	37.7924015891	6.309808
143.958422073	37.7921913353	4.856292
144.041324874	37.7899829362	3.27835
144.124098192	37.7917386615	1.934657
144.206749467	37.7914482155	1.0023185
144.290630629	37.7921188211	0.45869945
144.374963159	37.7925852176	0.173257
144.460199689	37.7919805186	0.063803397
144.542949525	37.7916506359	0.021663027
144.625706408	37.7913023918	0.0066062827
144.708724864	37.790349124	0.0017270838
144.791790955	37.7920062273	0.00039155383
144.874608687	37.7929363581	7.7182485e-05
144.951616872	37.7947456787	1.459364e-05
140.313571541	37.6996746887	-3.6304764e-15
140.375245839	37.7091220223	-3.9484343e-14
140.457833626	37.707554854	-1.1987968e-12
140.542016481	37.7090469555	-2.3838853e-11
140.624988263	37.7073950804	-3.99761085e-10
140.70793816	37.7087555494	-5.6540119e-09
140.792576824	37.709078954	-7.2810629e-08
140.875357761	37.7067462228	-6.9569674e-07
140.958204832	37.7093126368	-5.7848733e-06
141.041825588	37.7075226998	-3.9952036e-05
141.124758335	37.7080462651	-0.000236399115
141.20766766	37.7085297482	-0.0011323084
141.291281008	37.7075213115	-0.0045904387
141.375453501	37.7088084464	-0.015423962
141.458527808	37.7071599149	-0.044131499
141.540937432	37.7088266453	-0.1051499
141.625366106	37.7076461629	-0.2130464
141.707726043	37.7071998513	-0.3719472
141.791712354	37.7086697099	-0.5563271
141.875031126	37.7093776831	-0.7451384
141.958300162	37.7073760479	-0.8866446
142.041550334	37.7096856463	-0.9514298
142.124882878	37.7065468027	-0.910732
142.208063447	37.7077026249	-0.6932239
142.292415502	37.7087863245	-0.2577399
142.375233504	37.709549479	0.4349606
142.460040185	37.707735988	1.32697
142.541062729	37.7086665704	2.203581
142.624579222	37.7097258808	2.897294
142.708629742	37.7078422121	3.265458
142.792230733	37.7077055674	3.4006745
142.875893492	37.7092519237	3.604407
142.9586335	37.7099835594	4.0709395
143.042529723	37.7070661942	4.840391
143.125235498	37.7085875437	5.7099415
143.20667634	37.7088875795	6.348093
143.291726324	37.7070776533	6.57529
143.374460379	37.707329728	6.484571
143.458330579	37.7085470144	6.3117805
143.542260968	37.7097366304	6.33775
143.624912218	37.7098155157	6.570776
143.710247317	37.7076494183	6.771304
143.79282291	37.7076103234	6.48854
143.872829754	37.7096149784	5.590111
143.958000891	37.7094022608	4.185951
144.040785074	37.7071935546	2.746557
144.123436006	37.7068991264	1.5666
144.208647504	37.706531655	0.7214968
144.292695678	37.70932332	0.31208035
144.376415171	37.7097878743	0.1204613
144.45903536	37.7091818528	0.041898295
144.54187756	37.7067589029	0.0131765375
144.624767501	37.7085026162	0.0036587152
144.707960036	37.7077501288	0.00090203329
144.790137839	37.7087689336	0.0001940083
144.873983137	37.7080782168	3.6377476e-05
144.937603742	37.7151395732	8.90693625e-06
140.302701197	37.6208694605	-6.5375223e-15
140.374484291	37.6253128156	-1.1076728e-13
140.458178985	37.6240619631	-3.4230988e-12
140.54115622	37.6252817517	-6.5111402e-11
140.624817411	37.6238771066	-1.0273602e-09
140.708896342	37.6256051617	-1.3995131e-08
140.791057364	37.6244320286	-1.54736245e-07
140.87376728	37.624572477	-1.6426308e-06
140.958419456	37.6258243656	-1.312306e-05
141.041304655	37.6244018754	-8.52667395e-05
141.124784768	37.6254264004	-0.00048436884
141.208234667	37.6249278146	-0.00226130615
141.291709929	37.6243684307	-0.0087129483
141.375893542	37.6256224882	-0.027995795
141.459275598	37.6245092173	-0.076593563
141.542073281	37.6247660435	-0.17207065
141.624846338	37.6249827725	-0.3275999
141.708683381	37.6245279928	-0.5263617
141.791475364	37.6256293859	-0.7246523
141.875908236	37.6246832407	-0.8707567
141.958698374	37.6246867518	-0.9414364
142.042254126	37.6252740047	-0.9303617
142.124575053	37.6238445054	-0.8281691
142.207843382	37.6247110671	-0.60657385
142.29151019	37.6258065598	-0.2093369
142.37618461	37.6245249567	0.4310109
142.457608244	37.6242161067	1.2196585
142.541613303	37.6259392237	2.067108
142.625599456	37.6257514797	2.747014
142.706694772	37.6242490766	3.157971
142.791550762	37.6258418344	3.388923
142.87553673	37.6256038107	3.659563
142.95915682	37.6249844521	4.157178
143.041958267	37.6233726925	4.912518
143.124688328	37.6257229496	5.723832
143.207125247	37.6261248207	6.274667
143.290834566	37.6253823245	6.406145
143.374746282	37.6245586742	6.155338
143.459849141	37.6247344525	5.845131
143.542386636	37.6248376709	5.759826
143.624953879	37.6248620563	5.950467
143.707490415	37.6248563524	6.05501
143.790025864	37.6248021162	5.724853
143.875201607	37.6247115301	4.807348
143.960498611	37.6266120726	3.458816
144.043029246	37.6263241265	2.15548
144.125568163	37.6241064364	1.166925
144.208381818	37.6237369782	0.5465511
144.290977211	37.6252855335	0.2258328
144.373580246	37.6250231374	0.084100299
144.457222986	37.6254129239	0.0278060375
144.541016898	37.6250888473	0.00826313205
144.625021395	37.6243859313	0.00216734525
144.706426447	37.6245444567	0.00050713198
144.791916272	37.6259665092	9.0637783e-05
144.876239621	37.6250390737	1.5431224e-05
144.925378997	37.643323818	5.461794e-06
140.247232192	37.5114152272	-2.61306795e-15
140.292922959	37.5399127119	-1.10691625e-14
140.375314052	37.5427701169	-2.8425014e-13
140.45813701	37.5408902316	-7.59353865e-12
140.541809004	37.5420263412	-1.6231647e-10
140.625374224	37.5413041437	-2.4395395e-09
140.708159633	37.5420714381	-3.1040953e-08
140.791944165	37.5408866752	-3.3315067e-07
140.874733929	37.5415538127	-3.64537935e-06
140.957501157	37.5421811845	-2.7282065e-05
141.040777976	37.5412832969	-0.00017085629
141.125413409	37.5423196177	-0.00091572042
141.208794956	37.5413226723	-0.0040772413
141.29154554	37.5417314836	-0.015276454
141.374272317	37.5421003938	-0.047756791
141.457858418	37.5410042531	-0.124357
141.541635042	37.5421069467	-0.2673268
141.624316358	37.5423174196	-0.4838646
141.708068707	37.5410997867	-0.7270484
141.792033607	37.5419460156	-0.91952805
141.874278619	37.5409909403	-0.9913157
141.958226361	37.5413148641	-0.9432077
142.040877473	37.5422637197	-0.80770825
142.125323979	37.5411404553	-0.6367034
142.208324962	37.5402375031	-0.4108032
142.292514445	37.5428281658	-0.083100654
142.374844831	37.5418046495	0.4116535
142.458066188	37.5404588801	1.110555
142.540634055	37.5432102729	1.861886
142.623983544	37.5421720105	2.523821
142.708944897	37.5404661265	3.013522
142.79240297	37.541337189	3.33164
142.875168703	37.5419512209	3.6421
142.957863745	37.5401171374	4.138068
143.040189232	37.5406143871	4.826201
143.125080049	37.5420012594	5.5570565
143.210042408	37.5433607008	6.001805
143.292459399	37.5415417823	6.00641
143.375025329	37.5416730895	5.655227
143.458784246	37.5419200254	5.296146
143.539886169	37.5420175555	5.176363
143.624989547	37.5399055331	5.334457
143.707425126	37.5399059005	5.374321
143.791218696	37.5409218312	4.938472
143.876375839	37.5418806357	3.9975165
143.9600561	37.5417336464	2.807673
144.041257484	37.5425008902	1.6864025
144.125112744	37.5413126713	0.8702843
144.20784748	37.5409412537	0.3902166
144.290052719	37.542487476	0.1560668
144.375014103	37.5399804028	0.054912753
144.459088392	37.5426125435	0.0163287705
144.542787495	37.5429002395	0.0045919702
144.625506202	37.5404495602	0.0011545616
144.710111265	37.5417416082	0.00024993607
144.792575175	37.5413189643	4.8036331e-05
144.867569221	37.5449968393	8.3051482e-06
140.238321233	37.4457412946	-2.6035347e-15
140.29110382	37.4589537731	-2.7947119e-14
140.375348764	37.4583510596	-6.9430822e-13
140.45808794	37.4577211019	-2.1102637e-11
140.542008309	37.4588632088	-3.6743794e-10
140.62445142	37.4575629124	-5.2843299e-09
140.709321504	37.459099462	-6.3932866e-08
140.79179606	37.4577424173	-6.5177144e-07
140.875679835	37.4585270907	-7.3209617e-06
140.958809257	37.4576455783	-5.2102499e-05
141.041510773	37.4582051811	-0.00030973868
141.124189301	37.458725081	-0.0015623162
141.207434426	37.4577448329	-0.0066211084
141.291941343	37.4585665844	-0.025590634
141.374692219	37.4584710649	-0.0756524835
141.458039584	37.4577891806	-0.1868396
141.541697281	37.4588594789	-0.3849621
141.625301663	37.4576592579	-0.6598868
141.708386959	37.4571780031	-0.9320108
141.792580443	37.4592644487	-1.0842545
141.874741545	37.4583031719	-1.045281
141.957328505	37.4579667702	-0.8345081
142.041166642	37.4595636382	-0.55595055
142.124617169	37.4571179945	-0.29625535
142.209028673	37.4575246049	-0.1178333
142.29191837	37.4601129634	0.1056285
142.374429497	37.4567733284	0.43362895
142.457926537	37.458764407	0.95956495
142.541714853	37.4584059951	1.615777
142.626049318	37.4592391552	2.281238
142.708778351	37.4579085689	2.796243
142.791437388	37.4582580694	3.148698
142.873651194	37.4589032235	3.46809
142.958202415	37.4573618857	3.920516
143.040784793	37.4578546841	4.542006
143.125467933	37.4582755485	5.161451
143.208000824	37.4586244318	5.529353
143.292815236	37.4566259614	5.450656
143.375297576	37.4568581543	5.073549
143.457708245	37.4591060705	4.746274
143.539995031	37.4592387355	4.687555
143.625025606	37.4582111806	4.8062635
143.71009795	37.4571219845	4.742898
143.792431838	37.4570655331	4.222916
143.874774558	37.4590473476	3.259508
143.957274705	37.4588187782	2.140506
144.040879515	37.4576427496	1.223588
144.124421791	37.4583402171	0.5953671
144.207038644	37.4581444885	0.2558941
144.292094929	37.4586935525	0.09635837
144.376782081	37.4591424984	0.032275867
144.459128875	37.4585240394	0.0098144934
144.541482685	37.4581875951	0.0027245076
144.624556822	37.4587811094	0.00065172408
144.70724233	37.4570693501	0.00013662071
144.789696593	37.45807385	2.50459e-05
144.85484058	37.4663062011	5.6326708e-06
140.2274218	37.3710328472	-4.7225547e-15
140.291983153	37.3751277388	-6.4672822e-14
140.374566039	37.3739258649	-1.5655407e-12
140.458381933	37.3748339299	-3.76013285e-11
140.540689494	37.3768854659	-7.3135842e-10
140.624520882	37.3736719267	-1.03933185e-08
140.707847677	37.3759501732	-1.23566535e-07
140.791628031	37.3746005459	-1.2192901e-06
140.87526861	37.3753922523	-1.2972593e-05
140.958418886	37.3740697917	-8.89438015e-05
141.041594849	37.3755875272	-0.00050962463
141.124789986	37.3751279995	-0.0024454768
141.207973502	37.3746082438	-0.0098692314
141.291750585	37.37502117	-0.03889231
141.376203367	37.3768068862	-0.1089364
141.45873132	37.3741471364	-0.25459795
141.541235122	37.3761940149	-0.4997783
141.625243866	37.3745977921	-0.8147695
141.708536827	37.37412812	-1.0873685
141.791404809	37.3759317698	-1.152845
141.875210089	37.3739206899	-0.9707369
141.958102548	37.375598105	-0.58075485
142.042723168	37.3748303125	-0.1681042
142.125726283	37.3736881619	0.1331502
142.208549097	37.3748100116	0.2545341
142.290976286	37.375602387	0.32128325
142.374366293	37.3753283368	0.4594535
142.457778089	37.3739676437	0.8052311
142.542251642	37.3756731645	1.346967
142.624915572	37.3765009179	1.974057
142.708146018	37.3739351949	2.4638465
142.7918522	37.3755114833	2.831497
142.874399363	37.3761517764	3.126742
142.958873616	37.3746052113	3.502601
143.041372473	37.3748583639	4.064226
143.125978123	37.3753108868	4.62
143.208427614	37.3756916609	4.929473
143.290806121	37.3738542529	4.855829
143.374273561	37.3751054874	4.544385
143.457890712	37.3742394283	4.333372
143.542777166	37.3764586819	4.355473
143.62505286	37.3765160206	4.421915
143.710004386	37.3743368833	4.22668
143.792218386	37.3742776076	3.583389
143.874441133	37.3762558944	2.61472
143.956824737	37.3760249997	1.60765
144.041795427	37.3747680093	0.8438872
144.126752917	37.3735024163	0.3769717
144.209027658	37.3751319758	0.1499564
144.291467378	37.3747737736	0.052087357
144.373954647	37.376341036	0.016590497
144.457313906	37.3747543654	0.0048171759
144.541046419	37.3753844211	0.0012428152
144.623366814	37.3746562033	0.00029406956
144.708559026	37.3761332399	5.8938218e-05
144.793497421	37.3743484099	1.0350788e-05
144.841575834	37.3912810865	3.6747939e-06
140.216533271	37.2881196291	-5.4202557e-15
140.292846799	37.2919939907	-1.3607991e-13
140.375350311	37.2913730568	-3.2274537e-12
140.458653907	37.2919380062	-6.5034984e-11
140.542043282	37.2921872878	-1.3485642e-09
140.625038896	37.2910930242	-1.86419805e-08
140.70876648	37.2928032953	-2.2029913e-07
140.791960141	37.2911865937	-2.116971e-06
140.874851379	37.2922597218	-2.0336834e-05
140.958009813	37.2904906636	-0.00013645065
141.041103214	37.2924967521	-0.00077295781
141.125371778	37.2915276854	-0.0036356426
141.208505989	37.2914642604	-0.014158406
141.291548401	37.2923794945	-0.051833801
141.374820883	37.2921878394	-0.1400739
141.457824936	37.2910713232	-0.315832
141.541505257	37.293126217	-0.58786705
141.62468502	37.2909306604	-0.9176146
141.709146508	37.2914495518	-1.1407625
141.791563027	37.2925405389	-1.104682
141.874377799	37.2912322968	-0.7532859
141.958455544	37.2918882013	-0.20667875
142.040823379	37.2918226377	0.2987528
142.124996708	37.2919979892	0.58657525
142.208050055	37.2915448016	0.6294069
142.291955088	37.2926248898	0.5081601
142.37559022	37.291325965	0.4702587
142.458637619	37.2920451316	0.635065
142.542277226	37.2921085867	1.0650855
142.625408094	37.2916764069	1.588306
142.707960747	37.2903245646	2.025451
142.790443897	37.2927634116	2.333453
142.875139146	37.2915783211	2.566727
142.958371242	37.2907887066	2.9211475
143.041952331	37.2902057037	3.455704
143.124297683	37.2925462964	4.01587
143.20760681	37.2930037507	4.308663
143.291059066	37.2910115879	4.3000735
143.373241412	37.291306145	4.143821
143.458066806	37.2914593673	4.097364
143.542874886	37.2915408682	4.167722
143.625067984	37.2915547096	4.16124
143.707256586	37.2915285475	3.792116
143.790765281	37.2914595454	3.006221
143.875652838	37.2924089728	2.025905
143.959139308	37.2932301402	1.153319
144.041504267	37.2929249976	0.5432673
144.126043355	37.2907052085	0.2133056
144.208475707	37.2903195001	0.071205549
144.290678133	37.2918471022	0.020814011
144.375353621	37.2912898292	0.0054913615
144.459155815	37.2930775033	0.00144717235
144.542576224	37.2922248109	0.00034899401
144.626211413	37.2909050687	8.37982225e-05
144.709343229	37.2914596399	1.7628659e-05
144.784040004	37.2947480944	3.8842072e-06
140.161807392	37.1917923781	-1.234694e-15
140.208114625	37.2068900368	-8.0227191e-15
140.291297947	37.209745251	-2.42774115e-13
140.37453991	37.2072543225	-5.7122989e-12
140.458568663	37.2087674163	-1.25105765e-10
140.540997031	37.2067736996	-2.1083935e-09
140.625542677	37.2085117502	-3.02256345e-08
140.708680641	37.2092606092	-3.51610635e-07
140.790917661	37.2075004038	-3.3510839e-06
140.875750337	37.2092166866	-2.9404593e-05
140.959296681	37.2068497179	-0.00019526371
141.041750526	37.209377051	-0.00107809885
141.124131465	37.2069497236	-0.0048788581
141.207740268	37.2083603021	-0.019056349
141.292675705	37.2086633152	-0.063327141
141.375067476	37.2085493467	-0.1651211
141.457956957	37.207839182	-0.36392315
141.542271308	37.2094640555	-0.65062815
141.62613765	37.2068774144	-0.946867
141.708488614	37.2087690946	-1.0704325
141.791698173	37.2078461439	-0.9127963
141.875224567	37.2072021836	-0.4195106
141.959667617	37.2084971307	0.2367591
142.041973981	37.2094197076	0.763186
142.126090365	37.207685056	1.000303
142.207793209	37.2091028419	0.91715815
142.291314456	37.2078494951	0.6575515
142.374213803	37.2085998351	0.4418122
142.458757271	37.2074707402	0.437173
142.542290085	37.2102027839	0.7169507
142.624494607	37.2066524732	1.111217
142.70776362	37.2084444429	1.470722
142.792372737	37.2080745859	1.6757605
142.874364441	37.2086789012	1.8992425
142.957858477	37.2069702313	2.278382
143.042239347	37.2074413157	2.832577
143.124543327	37.2097803473	3.417216
143.208018262	37.2090836142	3.7818805
143.291390581	37.2082382282	3.9086625
143.376074097	37.208426527	3.957164
143.458236583	37.2086120975	4.04045
143.540328019	37.2087261769	4.135507
143.625077359	37.2065904169	4.01008
143.70715369	37.2065805736	3.463693
143.791993224	37.2086390373	2.520883
143.876683003	37.2085142832	1.553121
143.958824478	37.2083536835	0.7851577
144.041013245	37.2091004047	0.31800775
144.123249732	37.2079069579	0.099712692
144.207640805	37.2075194245	0.021498099
144.29128881	37.2080524744	0.00191634815
144.374994534	37.2084862759	-0.00061138306
144.458155968	37.2091466384	-0.00030779418
144.541695506	37.209419354	-7.1891016e-05
144.624305983	37.2071533085	-1.246056e-05
144.706482236	37.2082435095	-8.4379514e-07
144.771730567	37.2153673868	3.7697035e-07
140.152139656	37.1189462133	-1.113953e-15
140.208226733	37.1246307471	-1.22919985e-14
140.290969023	37.1262618457	-3.67181045e-13
140.375290651	37.1237600793	-9.15333395e-12
140.457621505	37.1268023746	-1.8228673e-10
140.54202243	37.123608762	-3.05020165e-09
140.624838909	37.1259281148	-4.34098215e-08
140.70787847	37.1247590719	-4.8759273e-07
140.791907108	37.1244831987	-4.7545434e-06
140.874764079	37.1256446336	-3.64315095e-05
140.957646564	37.123778694	-0.000235700645
141.042391025	37.1262595299	-0.0013735587
141.12528368	37.1233568565	-0.006054074
141.208254535	37.125258418	-0.022311242
141.291110087	37.1251272246	-0.067941234
141.375296941	37.124907839	-0.1782144
141.458072411	37.1257536973	-0.3697037
141.541280875	37.1254066801	-0.6293095
141.624788745	37.1235894455	-0.8476725
141.708281116	37.1257208055	-0.8872014
141.790935453	37.1251575731	-0.5962219
141.875216875	37.1238352758	-0.025503121
141.957861766	37.1254764359	0.64739945
142.041328728	37.126411773	1.139253
142.124978008	37.1249747324	1.292486
142.207871356	37.1253592872	1.100243
142.290987163	37.125377722	0.69391565
142.375419135	37.1238094937	0.3296312
142.458863842	37.124959563	0.2020213
142.540726609	37.1253877342	0.3275214
142.625218508	37.1241038733	0.5998523
142.70864821	37.1246511543	0.8246357
142.791858672	37.1253217564	0.9785595
142.876233233	37.1257803554	1.228355
142.958503172	37.1242087759	1.66288
143.040703517	37.1246755646	2.301249
143.125149112	37.124976775	2.9479305
143.208422593	37.1253191031	3.4271675
143.291795576	37.1233825323	3.713894
143.37631972	37.123591733	3.916245
143.458400099	37.1258312386	4.119218
143.540409662	37.1259420606	4.165982
143.625080899	37.1248887081	3.8793955
143.709780385	37.123791596	3.101117
143.791836695	37.1237154943	2.125552
143.873860906	37.1256716614	1.198356
143.958343746	37.1254254325	0.5334351
144.041805286	37.1242440686	0.17268175
144.12520408	37.1250148134	0.0298922275
144.209878927	37.1247183406	-0.0048504476
144.29221392	37.1242574006	-0.0064954688
144.374274035	37.1256817768	-0.003179963
144.458365551	37.1250501751	-0.0010268186
144.540369725	37.1266129988	-0.0002541329
144.625227145	37.1243468363	-4.7045345e-05
144.710110442	37.1254361862	-6.8738959e-06
144.758286777	37.1391895699	-2.00403405e-06
140.14214311	37.0364111358	-9.3123226e-16
140.208331392	37.0423754573	-1.5697733e-14
140.292180078	37.0412084748	-4.770611e-13
140.374482076	37.0421401275	-1.1265104e-11
140.458698484	37.0420891014	-2.35144125e-10
140.541397127	37.0410324241	-3.7615505e-09
140.625315051	37.0423888367	-5.2918988e-08
140.708953782	37.0400966699	-6.1611553e-07
140.791529373	37.0423025154	-5.4721222e-06
140.874420062	37.0425131478	-4.2351181e-05
140.958403449	37.0406999385	-0.00027229861
141.041819414	37.0431530626	-0.00145434275
141.124627276	37.0402278046	-0.0063233818
141.208111416	37.0426187719	-0.023225011
141.291549424	37.0414959572	-0.0684695765
141.374436637	37.040833097	-0.16918025
141.459106146	37.0430918964	-0.3394354
141.541774115	37.0407482154	-0.5421651
141.624973172	37.0415291339	-0.6770796
141.708512813	37.04176064	-0.6153134
141.791810499	37.0404558177	-0.2458042
141.874356672	37.0411405375	0.3471555
141.958582525	37.0424572841	0.964207
142.042086281	37.0416701024	1.360103
142.124574033	37.0407945311	1.400583
142.208887473	37.0433950729	1.100672
142.291290622	37.0403441732	0.573951
142.37561859	37.0413186115	0.1474854
142.457659105	37.0409634573	-0.074673947
142.541763046	37.042647973	-0.069684528
142.625105468	37.0411652718	0.06954059
142.707993125	37.0417264539	0.2217851
142.792457401	37.0424098841	0.3734775
142.874664477	37.0430225626	0.6708462
142.959139947	37.0414459326	1.213544
143.041120006	37.0407332393	1.9302745
143.125625657	37.0422066132	2.6494
143.20881986	37.0413989081	3.234704
143.29211178	37.0406052098	3.661677
143.374090595	37.0408108975	3.99959
143.45859558	37.0419973405	4.2368795
143.543169552	37.0431567442	4.201792
143.625079075	37.0431847751	3.711486
143.7096503	37.0410014664	2.838726
143.791592397	37.0409226822	1.828261
143.873498333	37.0428755139	0.960853
143.958099468	37.041589251	0.3641039
144.042687743	37.0423073576	0.084003814
144.124840887	37.0400857934	-0.0011120829
144.20902707	37.0416939318	-0.013988865
144.291246132	37.0414537533	-0.008984711
144.374413422	37.0418980765	-0.00348664925
144.457961952	37.0422436717	-0.0010314276
144.542762597	37.0415394761	-0.00024332834
144.625680301	37.043234778	-4.69962835e-05
144.70218664	37.0458345728	-8.12007375e-06
140.129826853	36.9550741484	-2.796504e-16
140.208875015	36.9586152645	-1.0706433e-14
140.290652185	36.9586559123	-3.5724727e-13
140.374800415	36.9586396774	-9.5378818e-12
140.458150841	36.9576302568	-2.02367445e-10
140.541216942	36.957870018	-3.4521888e-09
140.625067371	36.9594124012	-4.9193481e-08
140.707941426	36.9566964948	-5.6397016e-07
140.79248503	36.9592750195	-5.3154179e-06
140.875724726	36.9579727817	-4.1097257e-05
140.958509509	36.9580762845	-0.0002559344
141.041230223	36.9600390672	-0.0013017962
141.124556864	36.9575918279	-0.0057575381
141.209100582	36.9589327948	-0.020161135
141.292534999	36.9588445133	-0.059295235
141.375170058	36.9571891849	-0.1399821
141.457956395	36.958856814	-0.2597377
141.542762943	36.9580749195	-0.3936188
141.625323593	36.9576133698	-0.4415906
141.708619768	36.9597129982	-0.29179515
141.791900255	36.9570639215	0.1014631
141.875187257	36.958443993	0.6363224
141.959373883	36.9583525608	1.13481
142.04179559	36.9569240689	1.366552
142.125074281	36.9588129162	1.3085805
142.208001241	36.9578665233	0.9319049
142.29223829	36.9599231526	0.40449995
142.374217549	36.9565183422	-0.059827004
142.458488223	36.9590434913	-0.3336864
142.540696849	36.9599066723	-0.4116321
142.624509132	36.9582277355	-0.3659048
142.709079087	36.9581019032	-0.2749215
142.79120279	36.9587585859	-0.086652141
142.875548608	36.9592080628	0.30048025
142.95727294	36.9574938498	0.9380671
143.041669028	36.9579655684	1.743759
143.125978508	36.9593426456	2.536182
143.207966307	36.9596948897	3.18775
143.291152855	36.9589014992	3.7077865
143.374318702	36.957936578	4.09231
143.458781854	36.9581601865	4.280739
143.543240435	36.9582206555	4.116589
143.625065666	36.958224293	3.491086
143.706911533	36.9581783477	2.545797
143.79004855	36.958095081	1.5581565
143.874565985	36.9590272958	0.72838355
143.957852976	36.959827714	0.2473447
144.042276612	36.9595060224	0.048561152
144.124353084	36.9572842141	-0.010058743
144.20845473	36.9568828947	-0.013964633
144.290596827	36.9583904112	-0.0075784386
144.375090594	36.959091921	-0.00258221115
144.459162777	36.9594362624	-0.00074252608
144.541425957	36.9587312352	-0.00017380452
144.623773712	36.958351966	-3.2966047e-05
144.688575505	36.9643741485	-7.2282064e-06
140.078044596	36.8590089474	7.3473385e-17
140.124981548	36.8743979588	3.16088425e-16
140.207789287	36.8754278149	5.4368051e-15
140.292240182	36.8735959384	8.2268695e-14
140.375862101	36.8754644424	1.4842165e-13
140.45951593	36.87291451	-3.3713504e-11
140.541755395	36.8752913341	-9.2247826e-10
140.624548946	36.8756944177	-1.9976973e-08
140.708300745	36.8740953106	-2.8025227e-07
140.791018856	36.8762395693	-2.9040946e-06
140.874146263	36.8738709173	-2.4500766e-05
140.959185912	36.8749489111	-0.0001681217
141.042447734	36.8764362313	-0.00089198194
141.12569488	36.8739793182	-0.0039113654
141.208359508	36.8758298936	-0.0134906365
141.291049079	36.8742237683	-0.038541552
141.374821698	36.8745282882	-0.0875347255
141.458250963	36.8757819178	-0.1571746
141.54073501	36.8734087617	-0.2122661
141.624711531	36.8749299038	-0.1663996
141.707918116	36.876022826	0.0218876675
141.791109051	36.8743724644	0.3755564
141.875135959	36.8743835057	0.7995058
141.958411852	36.8756434613	1.104361
142.041113507	36.8739112058	1.2145055
142.123931322	36.8750752954	1.056564
142.208053115	36.8751423066	0.67391295
142.292206695	36.875916991	0.18341915
142.375393058	36.8737829543	-0.2512449
142.457537784	36.8763060382	-0.5170691
142.541458574	36.875282466	-0.6321085
142.625683091	36.8748174163	-0.6394205
142.708627726	36.8743021101	-0.54791295
142.791980344	36.8760011382	-0.311799
142.873606933	36.8743354974	0.15166825
142.957893807	36.8747290703	0.88258075
143.042344991	36.8742411339	1.741293
143.124230995	36.876570829	2.550021
143.208443113	36.8758483056	3.21538
143.290185788	36.8749209242	3.733133
143.374430371	36.8751549814	4.084225
143.458923887	36.8753184206	4.169526
143.540649308	36.8754111982	3.843979
143.625039857	36.8732544958	3.10327
143.70677262	36.8732327494	2.134559
143.791249193	36.875265137	1.181436
143.875689042	36.8751268479	0.5306516
143.9575203	36.8749531295	0.1752531
144.040473679	36.8756800981	0.029295639
144.123614219	36.8744816245	-0.0097722644
144.208023068	36.8750819132	-0.0103507335
144.292582611	36.8734728061	-0.00501787105
144.374540421	36.875306996	-0.0017311781
144.457343374	36.8756636626	-0.00047448788
144.540531894	36.8759221207	-0.00010512282
144.624911512	36.8743998823	-1.7815273e-05
144.676670404	36.8902596077	-5.525193e-06
140.066448868	36.7852338524	6.1475884e-17
140.125118979	36.7915870399	8.7856963e-16
140.208663449	36.7928818166	3.1218107e-14
140.291461488	36.7904136479	6.7669947e-13
140.375790807	36.7925659458	1.48512115e-11
140.458196898	36.7909392817	2.14189085e-10
140.5418152	36.7913895386	2.28499255e-09
140.625469287	36.7921491427	1.9224043e-08
140.708646654	36.7914918513	1.3576771e-07
140.791810224	36.7930975371	4.51960075e-07
140.875522604	36.79029105	-6.6276931e-07
140.958684416	36.791823724	-2.5010359e-05
141.041221098	36.7918592867	-0.00022326647
141.124380943	36.7903610419	-0.00112592665
141.208744565	36.7927290139	-0.0046454058
141.292011242	36.7915672702	-0.0135326785
141.37446276	36.791865404	-0.0281843775
141.458820804	36.7919353748	-0.043067463
141.54171238	36.7907307041	-0.020112505
141.62502306	36.7914963225	0.074904568
141.708012364	36.792975432	0.2786787
141.791967691	36.7916791801	0.5595073
141.875955734	36.7910263474	0.8182302
141.958220383	36.7923146254	0.9600233
142.04259308	36.791197989	0.94730195
142.125333576	36.7913325998	0.72625125
142.209377262	36.7924164495	0.38798945
142.291855756	36.7921571816	0.0039772494
142.374267358	36.7908131263	-0.32967345
142.458621943	36.791925011	-0.5551208
142.542466605	36.7925361592	-0.670234
142.625307608	36.7908346258	-0.68899195
142.708168968	36.7915476724	-0.59091385
142.790312702	36.792342591	-0.3108129
142.874471042	36.7905162595	0.2715459
142.958659275	36.7910279912	0.9997149
143.042612024	36.7914694921	1.812625
143.124457521	36.7918407159	2.57726
143.208724386	36.7919999596	3.198577
143.29302035	36.7901140113	3.657905
143.374755922	36.7903009166	3.884604
143.459059905	36.7925322715	3.826034
143.540704826	36.7926219374	3.354644
143.62502219	36.7915438115	2.558891
143.709354831	36.7904388603	1.640774
143.791070215	36.7903437768	0.8624252
143.87523096	36.7922752048	0.3456255
143.957013161	36.7920119685	0.092805929
144.04144215	36.7916780318	0.0061899521
144.125772512	36.7924943022	-0.01044378
144.209797521	36.7912733565	-0.0076334719
144.291758758	36.7907979054	-0.0032669364
144.374654058	36.7912276734	-0.00105071615
144.459140483	36.7917250374	-0.00025806948
144.542463914	36.7931121397	-5.0191124e-05
144.620852747	36.7950030408	-1.0488854e-05
140.055878425	36.7045563384	-2.508573e-16
140.124899052	36.7083903651	-2.75353655e-15
140.208779404	36.7084638256	-3.5354647e-14
140.290675233	36.7078574441	-3.3522192e-13
140.374197681	36.7096588108	2.8701917e-12
140.45760866	36.7074158823	1.24468975e-10
140.541854509	36.708228149	2.7490112e-09
140.624001333	36.708600376	4.0484675e-08
140.70778261	36.7083417037	4.24959185e-07
140.792054014	36.7089964229	3.5376671e-06
140.875116085	36.7071573968	2.0430307e-05
140.958753434	36.7091979161	9.9255863e-05
141.041812021	36.7082504436	0.00041201641
141.124857124	36.7072068097	0.0013132979
141.209210997	36.7095476694	0.00381409145
141.292276261	36.7079238792	0.010245287
141.374616032	36.7087807491	0.024521854
141.457858291	36.7074670563	0.0609485655
141.542899355	36.7076611019	0.1389915
141.625169844	36.7091850446	0.27833405
141.708183455	36.7082782923	0.462206
141.791587772	36.708320391	0.6501757
141.875469183	36.7086483604	0.75373535
141.957622807	36.7085905782	0.7645854
142.04024971	36.7074636449	0.64807975
142.125102631	36.709355499	0.4418389
142.207177288	36.7084035262	0.2024879
142.291140497	36.7073641113	-0.045312174
142.374133138	36.7080759883	-0.25693545
142.457108106	36.708753006	-0.4241714
142.541115715	36.7095917504	-0.5250766
142.625153936	36.7078978733	-0.5373064
142.708122995	36.7087917868	-0.4133404
142.791073332	36.7074717663	-0.1059087
142.87515321	36.7098650142	0.461355
142.959112431	36.7081366583	1.1622245
143.040746509	36.7084865896	1.913597
143.125015868	36.7079066444	2.578497
143.209184092	36.7092911348	3.0915905
143.29203944	36.7072721831	3.3943925
143.374965146	36.7075147692	3.485046
143.459189961	36.7097449256	3.249148
143.542098881	36.7087513166	2.659068
143.625001825	36.7098295754	1.867769
143.70921793	36.7076238445	1.081964
143.790839528	36.7086077853	0.48774315
143.875030184	36.7084263595	0.14793345
143.959342344	36.7081744889	0.011980509
144.042189092	36.7089617954	-0.0182665345
144.125268436	36.7076645141	-0.0144222885
144.207008676	36.708237513	-0.0071290792
144.290763574	36.7079902486	-0.0024779339
144.375315153	36.7084185986	-0.00067340245
144.459107072	36.7087493668	-0.00014538468
144.541111545	36.7084003236	-2.8096096e-05
144.606196076	36.7144618896	-7.7423601e-06
140.043652724	36.6220196306	-1.3066051e-15
140.124668333	36.6251963705	-3.0562077e-14
140.208033356	36.6240397375	-6.4531063e-13
140.291434662	36.625298762	-1.1134447e-11
140.374450253	36.6264821126	-1.45664235e-10
140.458920365	36.6244800704	-1.5623027e-09
140.540916181	36.6256411675	-1.3804869e-08
140.625108634	36.6235332214	-9.2952483e-08
140.708259215	36.6251938795	-3.6444411e-07
140.791085735	36.6244589981	-3.95151245e-07
140.874621748	36.6240832972	8.046831e-06
140.959426366	36.626093708	8.7597069e-05
141.042396388	36.6246384321	0.00052979222
141.124737107	36.6245588393	0.002445431
141.207784453	36.625913448	0.0083693182
141.291443967	36.6238418962	0.02501621
141.374945723	36.6265337089	0.062242493
141.457892764	36.6238004145	0.1345104
141.54110398	36.6239837322	0.2533977
141.625311167	36.6261272441	0.4128933
141.70745108	36.625584841	0.577053
141.792027379	36.6246151117	0.68640195
141.874969292	36.6256190745	0.6880711
141.959159544	36.6258791097	0.587879
142.041709827	36.624746633	0.4290611
142.125556812	36.6248660282	0.272098
142.208480647	36.625675501	0.148549
142.292670885	36.6243821089	0.042613972
142.375279533	36.624301808	-0.051597016
142.458175153	36.6260102258	-0.1425226
142.54235057	36.6258019592	-0.22367025
142.624988657	36.6242847318	-0.24174215
142.70785396	36.6241002869	-0.136142
142.791825826	36.6265183656	0.1633143
142.875659429	36.6260427281	0.66148995
142.957362788	36.6232463762	1.286254
143.041394202	36.6247524835	1.930767
143.125563679	36.6261127133	2.473413
143.209455186	36.6264412103	2.824969
143.291050633	36.6245472157	2.989616
143.375217795	36.6246867449	2.872764
143.45931411	36.6248376042	2.470581
143.540798938	36.6248777221	1.834536
143.624951744	36.6248714935	1.105021
143.709073472	36.6248064352	0.4826311
143.790601657	36.6247475953	0.112027
143.874758748	36.6256250213	-0.0460452305
143.958903326	36.6264054636	-0.066041924
144.040591733	36.6260678659	-0.044076618
144.124377658	36.6238441181	-0.021329194
144.20876871	36.6244287101	-0.0077436478
144.292890551	36.6249161161	-0.0022413249
144.374755786	36.6246329713	-0.00056147919
144.458279058	36.6259382853	-0.00010501723
144.541391674	36.6242730378	-1.7824903e-05
144.593218133	36.6392119822	-5.41915415e-06
139.992452278	36.5331057036	-7.1049743e-16
140.042337397	36.5413399076	-5.4155475e-15
140.124773908	36.5423673762	-1.4463332e-13
140.208105975	36.540212694	-3.0656636e-12
140.291777497	36.5414757741	-5.47627845e-11
140.375106692	36.5423641386	-8.01026415e-10
140.457572634	36.5413088474	-9.5213961e-09
140.542110118	36.5426683408	-9.43871575e-08
140.624811889	36.540377558	-7.384071e-07
140.708559455	36.5425882102	-4.6457326e-06
140.792503057	36.5403524542	-2.44354575e-05
140.875388658	36.5410015317	-0.00010874606
